12.9656 3.71045 28.7339
13.001 3.70884 28.7215
13.0366 3.70729 28.7095
13.0725 3.70581 28.698
13.1087 3.70445 28.6875
13.1448 3.70307 28.6767
13.181 3.70173 28.6664
13.2171 3.70036 28.6557
13.2531 3.69896 28.6449
13.2887 3.69746 28.6333
13.3246 3.69607 28.6225
13.3603 3.69462 28.6113
13.3959 3.69315 28.5999
13.431 3.69157 28.5877
13.4661 3.68998 28.5754
13.5007 3.68829 28.5623
13.5352 3.68654 28.5488
13.5694 3.68475 28.5349
13.6036 3.68297 28.5211
13.6373 3.68105 28.5062
13.6706 3.67904 28.4907
13.7035 3.67695 28.4745
13.7357 3.67466 28.4567
13.7677 3.67235 28.4389
13.7998 3.67007 28.4212
13.8314 3.66767 28.4026
13.8628 3.66524 28.3838
13.8941 3.6628 28.3649
13.9253 3.66034 28.3459
13.9567 3.65794 28.3273
13.9882 3.6556 28.3091
14.0204 3.65343 28.2923
14.0527 3.65132 28.276
14.0859 3.64945 28.2615
14.1198 3.64775 28.2484
14.155 3.64641 28.238
14.1908 3.64525 28.229
14.2245 3.64352 28.2156
14.2586 3.64193 28.2033
12.0585 3.8288 29.3257
12.0847 3.82382 29.2875
12.1134 3.81965 29.2556
12.1441 3.81616 29.2288
12.1755 3.81291 29.204
12.2076 3.80989 29.1809
12.2403 3.80708 29.1593
12.274 3.80461 29.1404
12.3072 3.80201 29.1205
12.3408 3.79953 29.1015
12.3746 3.79712 29.083
12.4082 3.79469 29.0644
12.4421 3.79236 29.0465
12.4766 3.79022 29.0302
12.5112 3.78812 29.0141
12.5452 3.78585 28.9967
12.7201 3.76401 28.8294
12.7533 3.76164 28.8113
12.7862 3.7592 28.7926
12.8191 3.75678 28.7741
12.8529 3.75463 28.7576
12.8875 3.75273 28.743
12.9226 3.75098 28.7297
12.9581 3.74937 28.7173
12.994 3.74788 28.7059
13.0301 3.74645 28.695
13.0663 3.74507 28.6844
13.1029 3.74382 28.6748
13.1395 3.74257 28.6652
13.1762 3.74134 28.6558
13.2126 3.74006 28.646
13.2487 3.73869 28.6355
13.2846 3.73726 28.6246
13.3207 3.7359 28.6141
13.3565 3.73448 28.6033
13.3923 3.73305 28.5923
13.4277 3.73152 28.5806
13.4629 3.72997 28.5687
13.4977 3.72829 28.5558
13.5319 3.72646 28.5419
13.5663 3.7247 28.5284
13.6002 3.72281 28.5139
13.6334 3.72075 28.4981
13.6666 3.71869 28.4823
13.6993 3.71653 28.4658
13.7314 3.71421 28.448
13.763 3.71175 28.4291
13.7946 3.70932 28.4106
13.8261 3.70687 28.3918
13.8572 3.70432 28.3723
13.8882 3.70179 28.3529
13.9192 3.69924 28.3333
13.9501 3.69671 28.314
13.9818 3.69437 28.2961
14.0136 3.6921 28.2786
14.0459 3.68994 28.2622
14.0785 3.6879 28.2465
14.1117 3.68603 28.2322
14.1456 3.68436 28.2194
14.1808 3.68301 28.209
14.2155 3.68155 28.1979
14.256 3.68159 28.1982
12.0808 3.86445 29.2781
12.1103 3.86052 29.2483
12.1407 3.85687 29.2207
12.172 3.85357 29.1957
12.2043 3.85057 29.1729
12.2369 3.84772 29.1513
12.2702 3.8451 29.1315
12.3035 3.84249 29.1117
12.3373 3.84004 29.0932
12.3712 3.83765 29.0751
12.405 3.83524 29.0568
12.4391 3.83295 29.0394
12.4736 3.83079 29.0231
12.508 3.82861 29.0066
12.5423 3.82644 28.9901
12.5754 3.82389 28.9708
12.7423 3.79955 28.7864
12.7762 3.79738 28.77
12.8098 3.79515 28.7531
12.8438 3.79307 28.7373
12.8789 3.79129 28.7238
12.9145 3.7897 28.7118
12.9505 3.78822 28.7006
12.9869 3.78685 28.6902
13.0234 3.78555 28.6803
13.0602 3.78432 28.671
13.0972 3.78317 28.6623
13.1342 3.78204 28.6537
13.1712 3.78087 28.6449
13.2079 3.77967 28.6357
13.2444 3.7784 28.6261
13.2805 3.77704 28.6158
13.3167 3.77569 28.6056
13.3528 3.77434 28.5954
13.3887 3.77291 28.5846
13.4242 3.77142 28.5733
13.4595 3.76987 28.5616
13.4944 3.7682 28.5489
13.5288 3.7664 28.5352
13.5631 3.76461 28.5217
13.5965 3.76257 28.5063
13.6298 3.7605 28.4905
13.6628 3.75838 28.4745
13.6953 3.75613 28.4574
13.7271 3.7537 28.4391
13.7587 3.75123 28.4203
13.7899 3.74866 28.4009
13.821 3.74608 28.3813
13.8517 3.74342 28.3612
13.8826 3.74081 28.3413
13.9133 3.73817 28.3213
13.944 3.73555 28.3015
13.9755 3.73314 28.2832
14.0072 3.73082 28.2657
14.0394 3.72863 28.2491
14.0721 3.7266 28.2337
14.1051 3.72467 28.2191
14.1383 3.72276 28.2046
14.1729 3.72128 28.1934
14.2069 3.71962 28.1808
14.2447 3.71895 28.1758
14.2853 3.71905 28.1765
14.3237 3.71857 28.1728
14.3557 3.71642 28.1566
12.107 3.90126 29.2402
12.1371 3.89752 29.2122
12.1687 3.89424 29.1876
12.201 3.89123 29.165
12.2337 3.88838 29.1437
12.2668 3.88568 29.1234
12.3003 3.88311 29.1042
12.3339 3.88059 29.0853
12.3679 3.8782 29.0674
12.4018 3.8758 29.0494
12.4361 3.87355 29.0325
12.4707 3.87139 29.0164
12.5054 3.8693 29.0007
12.5392 3.86694 28.983
12.5734 3.86471 28.9663
12.7648 3.8351 28.7443
12.7995 3.8332 28.7301
12.8344 3.83136 28.7163
12.87 3.82971 28.7039
12.9061 3.82825 28.693
12.9427 3.82696 28.6833
12.9796 3.82574 28.6742
13.0167 3.82458 28.6655
13.0538 3.82345 28.6571
13.0914 3.82246 28.6496
13.1287 3.82139 28.6416
13.1662 3.82039 28.6341
13.2033 3.81928 28.6258
13.2401 3.81808 28.6168
13.2764 3.81677 28.607
13.3126 3.81543 28.5969
13.3492 3.81418 28.5875
13.3851 3.81277 28.577
13.4208 3.81131 28.5661
13.4562 3.80978 28.5546
13.4911 3.80808 28.5418
13.5255 3.80629 28.5284
13.5597 3.80444 28.5145
13.5932 3.80241 28.4993
13.6262 3.80025 28.4832
13.659 3.79803 28.4665
13.6912 3.79569 28.449
13.7229 3.7932 28.4303
13.7542 3.79063 28.411
13.7852 3.78797 28.3911
13.816 3.7853 28.3711
13.8466 3.78256 28.3505
13.8771 3.77985 28.3302
13.9077 3.77714 28.3099
13.9382 3.77446 28.2898
13.9693 3.77193 28.2709
14.001 3.76958 28.2532
14.033 3.76732 28.2363
14.0655 3.76521 28.2205
14.0985 3.76324 28.2058
14.1317 3.76135 28.1915
14.1655 3.75961 28.1785
14.1994 3.75794 28.166
14.2346 3.75659 28.1559
14.2696 3.75522 28.1456
14.3064 3.7543 28.1388
14.3436 3.75349 28.1327
12.1334 3.93808 29.2032
12.165 3.93477 29.1787
12.1975 3.93181 29.1568
12.2306 3.92906 29.1364
12.2638 3.92636 29.1163
12.2973 3.92376 29.097
12.331 3.92124 29.0783
12.3647 3.91876 29.0599
12.3987 3.91637 29.0422
12.4331 3.91413 29.0256
12.4676 3.91193 29.0093
12.5025 3.90985 28.9939
12.5367 3.9076 28.9772
12.5711 3.9054 28.9609
12.6055 3.90323 28.9448
12.7888 3.87102 28.7059
12.8246 3.86946 28.6944
12.8609 3.86802 28.6837
12.8975 3.86671 28.674
12.9348 3.8656 28.6657
12.9723 3.86457 28.6581
13.0099 3.86356 28.6506
13.0476 3.86259 28.6434
13.0855 3.8617 28.6368
13.123 3.86068 28.6293
13.1609 3.85977 28.6225
13.1984 3.85879 28.6152
13.2356 3.85769 28.6071
13.2724 3.85652 28.5984
13.3089 3.85524 28.5889
13.3456 3.85402 28.5798
13.3817 3.85264 28.5697
13.4175 3.85121 28.559
13.4529 3.84965 28.5475
13.4879 3.84799 28.5351
13.5225 3.84622 28.522
13.5566 3.84433 28.508
13.5899 3.84223 28.4924
13.6228 3.84002 28.4761
13.6551 3.83766 28.4585
13.6872 3.83525 28.4406
13.7186 3.83265 28.4214
13.7497 3.83001 28.4018
13.7804 3.82725 28.3814
13.8111 3.8245 28.3609
13.8413 3.82165 28.3398
13.8717 3.81887 28.3192
13.9021 3.81609 28.2986
13.9326 3.81337 28.2784
13.9635 3.81076 28.259
13.9949 3.80831 28.2409
14.0266 3.80596 28.2234
14.0589 3.80377 28.2072
14.0916 3.80171 28.192
14.125 3.79986 28.1782
14.1587 3.79809 28.1651
14.1927 3.79641 28.1526
14.2268 3.79478 28.1406
14.2618 3.79338 28.1302
14.2978 3.79224 28.1217
14.3334 3.79105 28.1129
14.3729 3.79085 28.1114
14.4226 3.79334 28.1299
12.1611 3.97522 29.1693
12.1939 3.97233 29.1481
12.2273 3.96966 29.1286
12.2607 3.96698 29.1089
12.2944 3.96442 29.0901
12.3281 3.96189 29.0715
12.3617 3.95932 29.0527
12.3958 3.95697 29.0354
12.4301 3.95466 29.0185
12.4644 3.95237 29.0017
12.4995 3.95037 28.987
12.535 3.9485 28.9732
12.5689 3.94613 28.9559
12.6033 3.94393 28.9397
12.6373 3.94164 28.9229
12.7786 3.90897 28.6832
12.8155 3.90769 28.6738
12.8525 3.90649 28.665
12.8894 3.90526 28.656
12.9269 3.90419 28.6481
12.9651 3.90336 28.6421
13.0034 3.90256 28.6362
13.0416 3.90176 28.6303
13.0793 3.90079 28.6232
13.1173 3.89992 28.6168
13.1556 3.89915 28.6112
13.1933 3.89819 28.6041
13.231 3.89725 28.5972
13.2684 3.89623 28.5897
13.305 3.89496 28.5804
13.3418 3.89379 28.5718
13.3781 3.89247 28.5621
13.4142 3.89107 28.5519
13.4496 3.8895 28.5403
13.4846 3.88785 28.5282
13.5191 3.88604 28.515
13.5534 3.88417 28.5012
13.5864 3.88197 28.4851
13.6193 3.87973 28.4686
13.6514 3.87729 28.4507
13.6833 3.87481 28.4326
13.7145 3.87212 28.4128
13.7455 3.86941 28.3929
13.7758 3.86654 28.3718
13.8061 3.86367 28.3508
13.8361 3.86072 28.3292
13.8664 3.85787 28.3083
13.8966 3.85504 28.2875
13.927 3.85225 28.267
13.9575 3.8495 28.2468
13.9887 3.84699 28.2284
14.0203 3.84459 28.2108
14.0524 3.84233 28.1942
14.0849 3.8402 28.1786
14.1182 3.83828 28.1645
14.1521 3.83656 28.1519
14.1861 3.83489 28.1396
14.2203 3.83325 28.1276
14.2545 3.83164 28.1158
14.2893 3.83018 28.105
14.3241 3.82875 28.0946
14.3628 3.82835 28.0917
14.4056 3.82904 28.0967
14.4524 3.8308 28.1096
12.19 4.01273 29.1389
12.2238 4.01015 29.1201
12.2575 4.00756 29.1013
12.2913 4.00502 29.0828
12.3251 4.00249 29.0645
12.3587 3.99991 29.0458
12.3928 3.99752 29.0284
12.427 3.99516 29.0113
12.4616 3.99294 28.9952
12.4965 3.99086 28.9801
12.5316 3.98885 28.9655
12.5673 3.98701 28.9521
12.6024 3.98503 28.9377
12.6369 3.98287 28.922
12.8062 3.94584 28.6531
12.8441 3.94489 28.6462
12.8817 3.94387 28.6388
12.9193 3.94283 28.6313
12.9579 3.94212 28.6261
12.9967 3.9415 28.6216
13.0353 3.94077 28.6163
13.0737 3.94001 28.6108
13.1119 3.93921 28.605
13.1505 3.93853 28.6
13.1885 3.93766 28.5937
13.2265 3.93679 28.5874
13.2643 3.93587 28.5807
13.3014 3.93477 28.5727
13.3381 3.93356 28.5639
13.3745 3.93224 28.5543
13.4107 3.93088 28.5445
13.4464 3.9294 28.5337
13.4816 3.92774 28.5217
13.516 3.9259 28.5083
13.5498 3.92389 28.4937
13.583 3.9217 28.4778
13.6157 3.91941 28.4612
13.6477 3.91691 28.443
13.6792 3.91429 28.424
13.71 3.91147 28.4035
13.7408 3.90868 28.3833
13.7711 3.90577 28.3621
13.8011 3.90279 28.3405
13.8309 3.89975 28.3185
13.8608 3.89678 28.2969
13.8908 3.89386 28.2757
13.9213 3.89107 28.2554
13.9517 3.88827 28.2351
13.9826 3.88566 28.2161
14.014 3.88317 28.198
14.0462 3.88092 28.1817
14.0786 3.87876 28.166
14.1118 3.8768 28.1518
14.1453 3.87495 28.1384
14.1786 3.87308 28.1248
14.2119 3.87119 28.111
14.2465 3.86966 28.0999
14.2812 3.86819 28.0893
14.3155 3.86661 28.0778
14.3521 3.86564 28.0708
14.3935 3.86597 28.0731
14.4337 3.86598 28.0732
14.4642 3.86341 28.0545
14.5088 3.86462 28.0633
12.2195 4.05036 29.1098
12.2538 4.04794 29.0924
12.2879 4.04547 29.0747
12.322 4.04302 29.0571
12.3558 4.04048 29.0388
12.3898 4.03803 29.0213
12.4239 4.03565 29.0041
12.4583 4.03333 28.9875
12.4931 4.03121 28.9722
12.5284 4.02924 28.9581
12.5634 4.02716 28.9431
12.5996 4.02551 28.9313
12.6351 4.02365 28.9179
12.671 4.02193 28.9056
12.7948 3.98326 28.6276
12.8349 3.983 28.6258
12.8738 3.98239 28.6213
12.9118 3.98146 28.6147
12.9507 3.98084 28.6102
12.9899 3.98034 28.6066
13.029 3.97978 28.6026
13.0679 3.97916 28.5981
13.1065 3.97846 28.5931
13.1452 3.9778 28.5884
13.1835 3.97705 28.583
13.2219 3.9763 28.5776
13.26 3.97547 28.5716
13.2972 3.97438 28.5638
13.3346 3.97334 28.5564
13.371 3.97204 28.547
13.4074 3.97073 28.5376
13.4434 3.96931 28.5273
13.4784 3.96761 28.5151
13.5129 3.96575 28.5017
13.5468 3.96375 28.4874
13.5798 3.96149 28.4711
13.6121 3.95905 28.4536
13.644 3.95649 28.4352
13.6753 3.95379 28.4158
13.7058 3.95087 28.3948
13.7362 3.94793 28.3737
13.7659 3.94483 28.3514
13.7958 3.94178 28.3295
13.8254 3.9387 28.3073
13.8551 3.93563 28.2853
13.8849 3.93262 28.2637
13.9153 3.92979 28.2433
13.9455 3.9269 28.2226
13.9763 3.92424 28.2034
14.0077 3.92174 28.1854
14.0395 3.91936 28.1684
14.0717 3.9171 28.1521
14.1037 3.91483 28.1358
14.1377 3.9131 28.1234
14.1707 3.9111 28.109
14.2044 3.90932 28.0962
14.2394 3.90789 28.0859
14.2739 3.90635 28.0749
14.3091 3.905 28.0652
14.342 3.90303 28.051
14.3794 3.90229 28.0457
14.4176 3.90179 28.0421
14.4569 3.90158 28.0405
14.4959 3.90127 28.0384
14.5346 3.90089 28.0356
12.2495 4.0881 29.0822
12.2839 4.08573 29.0654
12.3182 4.0833 29.0481
12.3524 4.08089 29.031
12.3868 4.07855 29.0143
12.4213 4.07624 28.9979
12.4555 4.07387 28.981
12.4903 4.07171 28.9656
12.5256 4.06973 28.9515
12.5611 4.06783 28.938
12.5974 4.06616 28.9262
12.6331 4.06434 28.9132
12.6683 4.06239 28.8993
12.7036 4.06045 28.8856
12.7866 4.02162 28.6093
12.8271 4.02148 28.6083
12.8666 4.02105 28.6053
12.9055 4.02042 28.6007
12.9439 4.01964 28.5952
12.9834 4.01921 28.5922
13.023 4.01883 28.5894
13.0619 4.01821 28.585
13.1011 4.01771 28.5815
13.1402 4.01715 28.5775
13.1789 4.01651 28.5729
13.2176 4.01584 28.5681
13.2559 4.01508 28.5628
13.2935 4.0141 28.5558
13.331 4.01308 28.5486
13.3679 4.01191 28.5403
13.4044 4.01063 28.5311
13.4405 4.00922 28.5211
13.4757 4.00757 28.5094
13.5096 4.00553 28.4948
13.5438 4.00359 28.481
13.5768 4.00133 28.4649
13.6084 3.99866 28.446
13.6399 3.99595 28.4267
13.6711 3.99319 28.407
13.7014 3.99019 28.3857
13.7314 3.98713 28.364
13.7611 3.98397 28.3415
13.7906 3.98079 28.3188
13.8199 3.97757 28.296
13.8494 3.97443 28.2736
13.8792 3.97138 28.2519
13.9091 3.96839 28.2306
13.9393 3.96549 28.21
13.97 3.96276 28.1905
14.0012 3.9602 28.1723
14.0326 3.9577 28.1545
14.0648 3.95541 28.1383
14.0971 3.95318 28.1224
14.1306 3.95131 28.1091
14.1636 3.9493 28.0948
14.1966 3.94733 28.0808
14.2314 3.94584 28.0702
14.2653 3.94411 28.0579
14.3001 3.94264 28.0475
14.3347 3.94113 28.0367
14.369 3.93954 28.0254
14.4051 3.93844 28.0176
14.4438 3.93809 28.0151
14.4831 3.93789 28.0137
14.5159 3.93593 27.9997
14.5536 3.93529 27.9952
12.2797 4.12585 29.0552
12.3143 4.12354 29.039
12.3489 4.12124 29.0228
12.3834 4.1189 29.0063
12.4183 4.11672 28.9909
12.453 4.1145 28.9753
12.4875 4.11221 28.9592
12.5232 4.11033 28.9459
12.5588 4.10844 28.9326
12.5947 4.10666 28.9201
12.6311 4.10506 28.9088
12.6677 4.1035 28.8978
12.7046 4.10209 28.8879
12.7379 4.09952 28.8698
12.819 4.05984 28.5904
12.8597 4.05977 28.5899
12.8987 4.05919 28.5858
12.9376 4.05855 28.5813
12.9774 4.05823 28.5791
13.0172 4.05789 28.5766
13.0566 4.05742 28.5734
13.0962 4.05706 28.5708
13.1353 4.0565 28.5669
13.1745 4.05599 28.5633
13.2134 4.05542 28.5592
13.252 4.05473 28.5544
13.29 4.05387 28.5483
13.3278 4.05295 28.5419
13.3651 4.05188 28.5343
13.4018 4.05064 28.5256
13.4378 4.04918 28.5153
13.473 4.04753 28.5037
13.5074 4.0456 28.4901
13.5409 4.04346 28.475
13.5734 4.04102 28.4579
13.6051 4.03833 28.4389
13.6363 4.03553 28.4192
13.6668 4.03256 28.3983
13.6968 4.02943 28.3762
13.7266 4.02627 28.3539
13.7558 4.02295 28.3306
13.7849 4.01964 28.3073
13.8141 4.01634 28.2841
13.8433 4.01309 28.2611
13.8728 4.00992 28.2388
13.9019 4.00669 28.2161
13.9323 4.00384 28.196
13.9629 4.00104 28.1763
13.9942 3.99848 28.1583
14.0258 3.996 28.1408
14.0576 3.9936 28.1239
14.0894 3.99122 28.1072
14.1225 3.98923 28.0931
14.1559 3.98733 28.0797
14.1894 3.98544 28.0664
14.2247 3.98408 28.0569
14.2587 3.98239 28.0449
14.2931 3.98079 28.0337
14.3279 3.97933 28.0234
14.363 3.97795 28.0137
14.3989 3.97682 28.0057
14.4353 3.9758 27.9985
14.4744 3.97555 27.9968
14.5117 3.97481 27.9916
14.5508 3.97455 27.9897
14.5746 3.97012 27.9586
14.6196 3.97149 27.9682
12.3445 4.16125 29.0124
12.3793 4.15899 28.9966
12.4144 4.15688 28.9819
12.4499 4.15489 28.9681
12.4851 4.1528 28.9535
12.5205 4.15083 28.9397
12.5563 4.14899 28.927
12.5927 4.14734 28.9154
12.6291 4.14573 28.9042
12.666 4.14427 28.894
12.7032 4.14295 28.8848
12.7372 4.14056 28.8681
12.8117 4.09838 28.574
12.8527 4.09843 28.5744
12.8925 4.0981 28.5721
12.9319 4.09761 28.5687
12.9718 4.09733 28.5667
13.0118 4.09705 28.5648
13.0516 4.09672 28.5625
13.0914 4.0964 28.5603
13.131 4.09601 28.5575
13.1705 4.09559 28.5546
13.2098 4.09512 28.5513
13.2485 4.09448 28.5469
13.2869 4.09373 28.5416
13.3251 4.09292 28.536
13.3623 4.09181 28.5283
13.3993 4.09066 28.5202
13.4352 4.08916 28.5098
13.4703 4.08744 28.4978
13.5049 4.08559 28.4849
13.538 4.08331 28.469
13.5698 4.08062 28.4502
13.6013 4.07787 28.4311
13.6323 4.07498 28.4109
13.6625 4.07187 28.3892
13.6921 4.06862 28.3666
13.7215 4.06532 28.3435
13.7503 4.06182 28.3192
13.779 4.05837 28.2951
13.8078 4.05495 28.2713
13.8368 4.05159 28.2478
13.8661 4.04837 28.2254
13.8955 4.04517 28.2031
13.926 4.0423 28.1831
13.9561 4.03937 28.1626
13.987 4.03666 28.1438
14.0186 4.03418 28.1265
14.0509 4.0319 28.1106
14.0832 4.02964 28.0948
14.1159 4.02752 28.08
14.1494 4.02562 28.0667
14.1832 4.02381 28.0541
14.2174 4.02213 28.0425
14.2516 4.02049 28.031
14.2863 4.01896 28.0203
14.3214 4.01757 28.0107
14.3572 4.01639 28.0024
14.3932 4.01527 27.9946
14.4297 4.01427 27.9876
14.4672 4.01359 27.9829
14.5063 4.01332 27.981
14.5453 4.01306 27.9792
14.5839 4.01266 27.9764
14.6251 4.013 27.9788
12.3395 4.20101 29.0005
12.3747 4.19891 28.986
12.4104 4.19696 28.9725
12.4466 4.19518 28.9603
12.4825 4.19334 28.9476
12.5182 4.19144 28.9344
12.5542 4.18964 28.922
12.5906 4.18798 28.9106
12.6273 4.18646 28.9001
12.6643 4.18503 28.8901
12.7019 4.18381 28.8818
12.7369 4.18176 28.8676
12.8057 4.1373 28.5607
12.8468 4.13736 28.5611
12.8868 4.13711 28.5594
12.9264 4.13672 28.5567
12.9666 4.13651 28.5552
13.0068 4.1363 28.5538
13.0467 4.13601 28.5518
13.0869 4.13581 28.5504
13.1268 4.13551 28.5483
13.1666 4.13522 28.5463
13.2062 4.13483 28.5436
13.2456 4.13437 28.5405
13.2838 4.13356 28.5349
13.3218 4.1327 28.5289
13.3593 4.13169 28.522
13.3962 4.13048 28.5136
13.4321 4.129 28.5034
13.4672 4.12725 28.4913
13.5013 4.12524 28.4774
13.5338 4.12273 28.4601
13.5656 4.12003 28.4415
13.5969 4.11719 28.4219
13.6276 4.11417 28.401
13.6575 4.11096 28.3788
13.6869 4.10761 28.3557
13.716 4.10418 28.3321
13.7445 4.1006 28.3073
13.7728 4.09698 28.2823
13.8012 4.09341 28.2577
13.8298 4.08993 28.2337
13.8589 4.08659 28.2106
13.8883 4.08336 28.1884
13.9187 4.08048 28.1684
13.9485 4.07742 28.1473
13.9796 4.07475 28.1289
14.0114 4.07229 28.1119
14.0436 4.06998 28.096
14.0761 4.06775 28.0806
14.1085 4.06552 28.0651
14.1421 4.06366 28.0524
14.1762 4.06193 28.0404
14.2102 4.06019 28.0284
14.2451 4.05871 28.0182
14.2803 4.05734 28.0087
14.316 4.05611 28.0002
14.3521 4.055 27.9925
14.3885 4.05397 27.9854
14.4252 4.05305 27.9791
14.4624 4.05226 27.9736
14.5001 4.0516 27.9691
14.5392 4.05136 27.9674
14.5812 4.05193 27.9713
14.6267 4.05343 27.9817
14.6573 4.05085 27.9639
12.4065 4.23705 28.9634
12.443 4.23538 28.952
12.4795 4.23372 28.9406
12.5154 4.23187 28.928
12.5518 4.2302 28.9166
12.5883 4.22856 28.9054
12.6252 4.22708 28.8952
12.6622 4.22565 28.8855
12.7008 4.22473 28.8792
12.7374 4.22318 28.8686
12.8009 4.17655 28.5498
12.842 4.17665 28.5505
12.882 4.1764 28.5488
12.9218 4.17604 28.5464
12.9619 4.17583 28.5449
13.0021 4.17563 28.5436
13.0424 4.17547 28.5425
13.0825 4.17522 28.5408
13.1228 4.17508 28.5398
13.1629 4.17486 28.5383
13.2027 4.17452 28.536
13.2425 4.1742 28.5338
13.2815 4.17365 28.53
13.3189 4.17259 28.5228
13.3563 4.17151 28.5154
13.3923 4.17005 28.5054
13.4284 4.16861 28.4955
13.4638 4.16693 28.4841
13.4973 4.1647 28.4689
13.5292 4.16201 28.4504
13.5608 4.1592 28.4313
13.5918 4.15626 28.4111
13.6222 4.15315 28.3899
13.652 4.14985 28.3673
13.6811 4.14641 28.3438
13.71 4.14289 28.3198
13.7384 4.13923 28.2948
13.7661 4.13541 28.2686
13.794 4.13166 28.2429
13.8225 4.12809 28.2186
13.8512 4.12464 28.195
13.8804 4.12132 28.1723
13.9111 4.1185 28.153
13.9407 4.11535 28.1315
13.9716 4.11262 28.1128
14.0034 4.11015 28.0959
14.0356 4.10781 28.0799
14.0687 4.10576 28.0659
14.1008 4.10341 28.0499
14.1349 4.10166 28.0379
14.1692 4.09999 28.0265
14.204 4.09846 28.0161
14.239 4.09703 28.0063
14.2749 4.09583 27.9981
14.3108 4.09466 27.99
14.3473 4.09363 27.983
14.384 4.09271 27.9767
14.421 4.09185 27.9709
14.4585 4.09113 27.9659
14.496 4.09044 27.9612
14.5346 4.09004 27.9585
14.5758 4.09038 27.9608
14.6182 4.09106 27.9654
14.6519 4.08932 27.9535
12.4383 4.27516 28.941
12.4764 4.27402 28.9333
12.5126 4.27228 28.9215
12.5492 4.27065 28.9105
12.586 4.26912 28.9002
12.6231 4.2677 28.8905
12.6604 4.26632 28.8812
12.6976 4.26497 28.872
12.7338 4.26327 28.8605
12.7671 4.2606 28.8424
12.8385 4.21632 28.5427
12.8786 4.2161 28.5413
12.9182 4.21569 28.5385
12.9583 4.21548 28.537
12.9984 4.21524 28.5354
13.0387 4.21508 28.5343
13.079 4.21491 28.5332
13.1193 4.21476 28.5321
13.1593 4.21449 28.5303
13.1993 4.21426 28.5287
13.2385 4.21375 28.5253
13.5849 4.19477 28.3968
13.6152 4.19159 28.3753
13.6452 4.18835 28.3534
13.6745 4.18491 28.33
13.7029 4.18122 28.3051
13.731 4.17744 28.2795
13.7588 4.1736 28.2535
13.7862 4.16967 28.2269
13.8143 4.16598 28.2019
13.8428 4.16244 28.1779
13.8717 4.15901 28.1548
13.9018 4.15596 28.1341
13.9325 4.15312 28.1149
13.9639 4.15051 28.0972
13.9953 4.1479 28.0796
14.0276 4.14561 28.064
14.0605 4.14348 28.0496
14.0938 4.14146 28.036
14.1281 4.13977 28.0245
14.1629 4.13824 28.0141
14.1981 4.13681 28.0044
14.2335 4.13546 27.9953
14.2695 4.13429 27.9874
14.3058 4.13321 27.9801
14.3426 4.1323 27.9739
14.3796 4.13143 27.968
14.417 4.1307 27.9631
14.4548 4.13008 27.9589
14.4929 4.12955 27.9553
14.5315 4.12914 27.9525
14.571 4.12902 27.9517
14.6123 4.12939 27.9542
14.6521 4.12933 27.9538
12.4696 4.31306 28.9177
12.5086 4.31225 28.9122
12.546 4.31088 28.9031
12.5834 4.30955 28.8942
12.621 4.30829 28.8857
12.6581 4.30684 28.876
12.696 4.30568 28.8682
12.7322 4.30397 28.8568
12.7642 4.30085 28.8358
12.8362 4.25638 28.5377
12.876 4.25605 28.5355
12.9158 4.2557 28.5331
12.9556 4.25538 28.531
12.9955 4.25509 28.529
13.0357 4.2549 28.5277
13.0759 4.25469 28.5264
13.1149 4.25411 28.5225
13.1542 4.25365 28.5194
13.6626 4.22172 28.3053
13.6941 4.21896 28.2868
13.7226 4.21529 28.2622
13.7504 4.21145 28.2364
13.7776 4.2074 28.2093
13.8053 4.20358 28.1836
13.8335 4.19988 28.1589
13.8626 4.19652 28.1363
13.8922 4.1933 28.1147
13.9234 4.19059 28.0966
13.9548 4.18796 28.0789
13.9868 4.18552 28.0625
14.0193 4.18325 28.0474
14.0525 4.18119 28.0336
14.0865 4.1794 28.0215
14.1216 4.17792 28.0116
14.1567 4.17646 28.0018
14.1921 4.17511 27.9927
14.228 4.17388 27.9845
14.2643 4.17279 27.9772
14.3007 4.17175 27.9702
14.338 4.17095 27.9649
14.3753 4.17017 27.9597
14.413 4.16952 27.9553
14.4512 4.169 27.9518
14.4896 4.16855 27.9488
14.5282 4.16818 27.9463
14.5672 4.16788 27.9443
14.6069 4.16781 27.9438
14.6496 4.16861 27.9492
14.6874 4.16798 27.945
14.7179 4.1653 27.927
12.5029 4.35161 28.8991
12.5409 4.35045 28.8914
12.5791 4.34937 28.8843
12.6175 4.34837 28.8776
12.6559 4.34739 28.8711
12.6943 4.34641 28.8646
12.7314 4.34498 28.8551
12.8352 4.29686 28.5355
12.8748 4.29645 28.5328
12.9145 4.29609 28.5304
12.954 4.29566 28.5275
12.9935 4.29522 28.5246
13.033 4.29481 28.5219
13.072 4.29422 28.518
13.6769 4.25406 28.2513
13.7106 4.25199 28.2375
13.7392 4.24835 28.2134
13.7676 4.24465 28.1888
13.7954 4.24081 28.1633
13.8232 4.23699 28.1379
13.8525 4.23366 28.1158
13.8827 4.23061 28.0955
13.9139 4.2279 28.0775
13.9455 4.2253 28.0603
13.9776 4.22286 28.0441
14.0115 4.22099 28.0316
14.0453 4.21913 28.0193
14.0798 4.21745 28.0081
14.1149 4.21597 27.9983
14.1502 4.21457 27.989
14.1859 4.21328 27.9805
14.2223 4.21221 27.9733
14.2591 4.21126 27.9671
14.296 4.21035 27.961
14.3336 4.20967 27.9565
14.3716 4.20908 27.9525
14.4094 4.20846 27.9484
14.4478 4.208 27.9454
14.4865 4.20762 27.9429
14.5252 4.20727 27.9405
14.5643 4.20702 27.9389
14.6034 4.20676 27.9371
14.6445 4.2071 27.9394
14.6854 4.20736 27.9411
14.7225 4.20657 27.9359
14.7569 4.20499 27.9254
12.6157 4.38903 28.8734
12.6551 4.38838 28.8691
12.6938 4.38748 28.8632
12.7294 4.38553 28.8504
12.8369 4.33824 28.5393
12.8757 4.33756 28.5348
12.9145 4.33688 28.5303
12.9531 4.33612 28.5254
12.9918 4.33543 28.5208
13.0298 4.33453 28.5149
13.0668 4.33327 28.5066
13.7242 4.284 28.1825
13.7547 4.28097 28.1626
13.7837 4.27747 28.1395
13.8124 4.27388 28.1159
13.8415 4.27047 28.0935
13.872 4.26749 28.0739
13.9034 4.2648 28.0562
13.936 4.26252 28.0412
13.9694 4.26047 28.0277
14.0032 4.25857 28.0152
14.0378 4.25689 28.0042
14.0728 4.25539 27.9943
14.1084 4.25406 27.9855
14.1444 4.25282 27.9774
14.1804 4.25164 27.9696
14.2169 4.25058 27.9627
14.2541 4.24975 27.9572
14.2916 4.24902 27.9524
14.3294 4.24837 27.9481
14.3676 4.24787 27.9448
14.4059 4.24737 27.9415
14.4446 4.24701 27.9392
14.4834 4.24667 27.9369
14.5222 4.24634 27.9347
14.5614 4.24612 27.9333
14.6007 4.24593 27.932
14.6411 4.24607 27.933
14.6835 4.24676 27.9375
14.7214 4.24618 27.9337
14.7555 4.24451 27.9227
12.8395 4.37991 28.5449
12.8773 4.3789 28.5383
12.9154 4.37797 28.5323
12.9535 4.37708 28.5264
12.9918 4.37623 28.5209
13.8001 4.31025 28.091
13.83 4.30706 28.0701
13.8609 4.30419 28.0514
13.8932 4.30178 28.0357
13.9267 4.29973 28.0224
13.9607 4.29786 28.0102
13.9952 4.29615 27.9991
14.0304 4.29467 27.9894
14.066 4.29333 27.9807
14.1022 4.29217 27.9731
14.1384 4.29102 27.9656
14.1749 4.28995 27.9586
14.212 4.28909 27.953
14.2494 4.28832 27.948
14.2872 4.28767 27.9438
14.3254 4.28716 27.9404
14.3638 4.2867 27.9374
14.4024 4.2863 27.9348
14.4414 4.286 27.9329
14.4802 4.28568 27.9308
14.5193 4.28542 27.9291
14.5586 4.28523 27.9279
14.598 4.28508 27.9269
14.638 4.28511 27.9271
14.6784 4.28524 27.9279
14.7192 4.28548 27.9295
14.7496 4.28271 27.9115
14.7512 4.27162 27.8392
12.8426 4.42178 28.5518
12.88 4.42061 28.5442
12.9175 4.41949 28.5369
12.9552 4.41843 28.5301
12.993 4.41741 28.5235
13.7555 4.349 28.0818
13.7876 4.34648 28.0655
13.8184 4.34353 28.0465
13.85 4.34087 28.0293
13.8831 4.3387 28.0153
13.9172 4.33683 28.0032
13.9517 4.33511 27.9921
13.9868 4.33361 27.9824
14.0226 4.33228 27.9739
14.0589 4.33116 27.9666
14.0955 4.33011 27.9598
14.1326 4.32924 27.9542
14.1697 4.32836 27.9485
14.2073 4.32764 27.9439
14.245 4.32695 27.9394
14.2832 4.32641 27.9359
14.3216 4.32594 27.9329
14.3603 4.32558 27.9306
14.3992 4.32527 27.9285
14.4383 4.32501 27.9269
14.4773 4.32474 27.9252
14.5165 4.32452 27.9237
14.5559 4.32438 27.9228
14.5955 4.32427 27.9221
14.6355 4.32429 27.9222
14.6756 4.32433 27.9225
14.7176 4.32494 27.9265
14.7539 4.3239 27.9197
14.7772 4.31902 27.8882
12.7748 4.46748 28.583
12.8103 4.4656 28.5709
12.8466 4.46402 28.5608
12.8835 4.46263 28.5519
12.9205 4.46134 28.5436
12.9579 4.46015 28.5361
13.7737 4.3822 28.0373
13.8061 4.37976 28.0217
13.8394 4.3776 28.0079
13.8732 4.37563 27.9953
13.9077 4.3739 27.9842
13.943 4.37242 27.9748
13.9789 4.37112 27.9664
14.0149 4.3699 27.9586
14.0523 4.36908 27.9534
14.0892 4.36814 27.9473
14.1272 4.36753 27.9434
14.1647 4.36678 27.9387
14.2026 4.36613 27.9345
14.2408 4.36562 27.9312
14.2794 4.3652 27.9285
14.3179 4.36477 27.9258
14.357 4.36451 27.9241
14.3961 4.36427 27.9226
14.4353 4.36403 27.9211
14.4745 4.36384 27.9198
14.514 4.36368 27.9188
14.5536 4.36361 27.9184
14.5934 4.36356 27.9181
14.6333 4.36356 27.918
14.6733 4.3636 27.9183
14.7157 4.36431 27.9228
14.7553 4.36422 27.9223
14.7939 4.36384 27.9199
12.6265 4.52843 28.7102
12.7142 4.51584 28.6304
12.746 4.51263 28.61
12.7799 4.51015 28.5944
12.8151 4.50813 28.5815
12.8511 4.50642 28.5707
12.8874 4.50485 28.5607
12.9246 4.50357 28.5527
12.9612 4.50211 28.5434
13.7944 4.41606 27.9978
13.8292 4.41438 27.9872
13.864 4.41275 27.9768
13.8988 4.4111 27.9663
13.935 4.40987 27.9586
13.9718 4.4089 27.9524
14.0086 4.40789 27.946
14.0461 4.4071 27.941
14.0835 4.40631 27.936
14.122 4.40587 27.9332
14.1603 4.40535 27.9299
14.1983 4.40474 27.9261
14.2369 4.40435 27.9236
14.2759 4.40404 27.9216
14.3148 4.40373 27.9196
14.3538 4.40346 27.918
14.3932 4.4033 27.9169
14.4324 4.40307 27.9155
14.4718 4.40294 27.9146
14.5113 4.40281 27.9138
14.5513 4.40283 27.9139
14.5913 4.40284 27.914
14.6313 4.40289 27.9143
14.6713 4.40292 27.9145
14.7127 4.40334 27.9172
14.7531 4.4035 27.9182
14.7892 4.40234 27.9108
12.4813 4.57648 28.7542
12.5152 4.57383 28.7376
12.5494 4.5713 28.7217
12.5839 4.56893 28.7068
12.6183 4.56653 28.6917
12.6518 4.56379 28.6745
12.6848 4.56092 28.6564
12.7177 4.55804 28.6383
12.7508 4.55525 28.6208
12.785 4.55283 28.6056
12.8198 4.55066 28.592
12.8552 4.54875 28.58
12.8918 4.54722 28.5703
12.9293 4.54603 28.5629
13.7794 4.45126 27.9674
13.8162 4.45024 27.961
13.8536 4.44939 27.9557
13.8903 4.44836 27.9492
13.9276 4.44748 27.9437
13.9651 4.44673 27.939
14.0026 4.44594 27.934
14.0405 4.44531 27.93
14.0787 4.44474 27.9265
14.1176 4.44441 27.9244
14.156 4.44394 27.9215
14.1948 4.44358 27.9192
14.2338 4.44331 27.9175
14.2728 4.44302 27.9157
14.3117 4.44271 27.9138
14.3508 4.44246 27.9122
14.3905 4.44237 27.9116
14.4298 4.4422 27.9105
14.4694 4.44211 27.91
14.509 4.44202 27.9094
14.5491 4.44207 27.9097
14.5892 4.44212 27.91
14.6293 4.44218 27.9104
14.6694 4.44223 27.9107
14.7099 4.44241 27.9119
14.7542 4.44374 27.9202
14.7888 4.44214 27.9101
12.4479 4.62043 28.7718
12.4809 4.61741 28.7531
12.5147 4.61475 28.7365
12.5493 4.61235 28.7216
12.5839 4.60997 28.7067
12.6186 4.60767 28.6924
12.6536 4.60546 28.6787
12.6874 4.60287 28.6625
12.7213 4.60027 28.6464
12.7551 4.5977 28.6303
12.7894 4.59531 28.6154
12.824 4.59305 28.6014
12.8597 4.5912 28.5898
12.8963 4.58968 28.5804
12.9339 4.58852 28.5732
13.7695 4.48801 27.9473
13.808 4.48753 27.9443
13.8447 4.48648 27.9378
13.8828 4.48589 27.9341
13.9206 4.48519 27.9297
13.959 4.48471 27.9267
13.9971 4.48414 27.9231
14.0358 4.48372 27.9206
14.0743 4.48329 27.9179
14.1133 4.48298 27.9159
14.1521 4.48261 27.9137
14.1914 4.48244 27.9126
14.2305 4.48218 27.911
14.2695 4.48189 27.9091
14.309 4.48178 27.9085
14.3483 4.48157 27.9072
14.388 4.48151 27.9068
14.4275 4.48137 27.906
14.4672 4.48131 27.9056
14.5069 4.48127 27.9053
14.5471 4.48134 27.9057
14.5871 4.48138 27.906
14.6274 4.48151 27.9068
14.6676 4.48161 27.9074
14.7084 4.48186 27.909
14.7552 4.48395 27.922
14.7981 4.48488 27.9278
12.4465 4.66107 28.7688
12.48 4.65822 28.7512
12.5146 4.65579 28.7362
12.5497 4.65357 28.7225
12.585 4.65143 28.7093
12.62 4.6492 28.6955
12.6551 4.64702 28.6821
12.6897 4.64466 28.6675
12.7241 4.64227 28.6527
12.7584 4.63986 28.6379
12.793 4.63754 28.6235
12.828 4.63539 28.6103
12.8639 4.63359 28.5992
12.9005 4.63204 28.5896
12.9383 4.63095 28.5829
13.7984 4.52434 27.9248
13.8375 4.52408 27.9233
13.876 4.52363 27.9205
13.915 4.52331 27.9185
13.9539 4.523 27.9166
13.993 4.52272 27.9148
14.0316 4.52231 27.9123
14.0704 4.52194 27.9101
14.1095 4.52168 27.9085
14.1486 4.52142 27.9068
14.1876 4.52113 27.9051
14.2271 4.52099 27.9042
14.2669 4.52096 27.904
14.3064 4.52084 27.9033
14.3458 4.5207 27.9024
14.3855 4.52065 27.9021
14.4252 4.52057 27.9016
14.465 4.52055 27.9015
14.505 4.52056 27.9016
14.545 4.52061 27.9019
14.5852 4.52071 27.9024
14.6257 4.5209 27.9036
14.6661 4.52103 27.9044
14.7066 4.52121 27.9056
14.7506 4.52247 27.9133
14.7884 4.52182 27.9093
12.4452 4.70172 28.7658
12.4794 4.69908 28.7497
12.5144 4.69679 28.7357
12.5498 4.69468 28.7228
12.5855 4.69266 28.7104
12.621 4.6906 28.6978
12.6561 4.6884 28.6843
12.6912 4.6862 28.6709
12.726 4.68395 28.6571
12.7609 4.6817 28.6434
12.796 4.67955 28.6302
12.8316 4.67763 28.6184
12.8677 4.67585 28.6076
12.9044 4.67435 28.5983
12.9426 4.67338 28.5924
13.7905 4.56167 27.909
13.8326 4.56238 27.9133
13.8718 4.56216 27.912
13.9112 4.562 27.911
13.9501 4.56167 27.909
13.9894 4.56146 27.9077
14.0286 4.56124 27.9063
14.0675 4.5609 27.9043
14.1065 4.56061 27.9025
14.1455 4.56034 27.9008
14.185 4.56021 27.9
14.2243 4.56001 27.8988
14.2638 4.55989 27.8981
14.3035 4.55983 27.8977
14.3433 4.5598 27.8975
14.3833 4.55982 27.8976
14.4231 4.5598 27.8975
14.4629 4.55977 27.8973
14.5028 4.55976 27.8973
14.5429 4.55984 27.8978
14.5832 4.55996 27.8985
14.6239 4.56022 27.9001
14.6643 4.56037 27.901
14.7051 4.56066 27.9028
14.7505 4.56237 27.9133
14.7871 4.56135 27.907
12.479 4.74004 28.7487
12.5144 4.73788 28.7357
12.5501 4.73586 28.7234
12.586 4.73391 28.7116
12.6218 4.73194 28.6996
12.6571 4.72979 28.6866
12.6926 4.72773 28.6741
12.7278 4.72558 28.661
12.763 4.72346 28.6482
12.7986 4.72147 28.6361
12.8345 4.71962 28.6249
12.8707 4.71788 28.6143
12.9081 4.7166 28.6066
12.9469 4.71582 28.6019
13.7845 4.59959 27.8969
13.8272 4.6005 27.9024
13.8679 4.60079 27.9042
13.908 4.60083 27.9044
13.9475 4.60071 27.9037
13.9868 4.6005 27.9025
14.0261 4.6003 27.9012
14.0651 4.60003 27.8996
14.1044 4.59983 27.8984
14.1433 4.59952 27.8965
14.1828 4.59938 27.8956
14.2223 4.59925 27.8949
14.2619 4.59916 27.8943
14.3015 4.59907 27.8937
14.3412 4.599 27.8933
14.3811 4.59901 27.8934
14.421 4.59901 27.8934
14.4609 4.59902 27.8934
14.5009 4.59906 27.8937
14.5409 4.59911 27.894
14.5814 4.59929 27.8951
14.622 4.59952 27.8965
14.6625 4.59972 27.8977
14.7036 4.60009 27.8999
14.7485 4.60164 27.9094
14.7918 4.60272 27.9159
12.5142 4.77888 28.7351
12.5502 4.77695 28.7235
12.5862 4.77504 28.712
12.6223 4.77316 28.7007
12.6581 4.77117 28.6888
12.6938 4.7692 28.6769
12.7294 4.76715 28.6646
12.7651 4.76517 28.6527
12.8009 4.76327 28.6413
12.8372 4.76153 28.6308
12.8737 4.7599 28.621
12.9113 4.75866 28.6136
12.9497 4.75776 28.6081
12.9889 4.75711 28.6042
13.7816 4.63847 27.8909
13.8253 4.63976 27.8986
13.8659 4.64001 27.9001
13.9062 4.64013 27.9008
13.9461 4.64014 27.9009
13.9854 4.63993 27.8996
14.0245 4.63968 27.8981
14.0638 4.63947 27.8969
14.1029 4.63924 27.8955
14.1421 4.63898 27.8939
14.1813 4.63877 27.8927
14.2205 4.63855 27.8913
14.26 4.63844 27.8907
14.2997 4.63837 27.8903
14.3394 4.6383 27.8898
14.3791 4.63827 27.8896
14.419 4.63826 27.8896
14.459 4.63829 27.8898
14.4991 4.63836 27.8902
14.5392 4.63844 27.8907
14.5796 4.63862 27.8917
14.6202 4.63883 27.893
14.6609 4.63908 27.8945
14.7017 4.63937 27.8963
14.7439 4.64012 27.9008
14.7939 4.64328 27.9198
12.5498 4.81789 28.7228
12.5864 4.81617 28.7125
12.6227 4.81436 28.7017
12.6589 4.81253 28.6908
12.6949 4.8106 28.6793
12.7307 4.80866 28.6677
12.7667 4.80676 28.6564
12.8029 4.80496 28.6456
12.8393 4.80328 28.6356
12.8763 4.80179 28.6268
12.9141 4.80062 28.6198
12.9526 4.79972 28.6144
12.9921 4.79919 28.6113
13.7812 4.67824 27.8902
13.8245 4.67938 27.897
13.8655 4.67977 27.8993
13.9058 4.67988 27.9
13.9455 4.67983 27.8997
13.9848 4.67965 27.8986
14.0238 4.67934 27.8968
14.063 4.6791 27.8953
14.102 4.67881 27.8936
14.1413 4.67862 27.8925
14.1804 4.67837 27.891
14.2195 4.6781 27.8893
14.259 4.678 27.8887
14.2985 4.67786 27.8879
14.3379 4.67771 27.887
14.3776 4.67764 27.8866
14.4173 4.6776 27.8864
14.4573 4.67762 27.8865
14.4973 4.67768 27.8869
14.5377 4.67785 27.8878
14.5781 4.67801 27.8888
14.6187 4.67824 27.8902
14.6594 4.67849 27.8917
14.7002 4.67879 27.8935
14.739 4.67846 27.8915
14.7889 4.68163 27.9104
12.5862 4.85715 28.7121
12.623 4.8555 28.7023
12.6594 4.85373 28.6918
12.6957 4.85191 28.6811
12.732 4.85012 28.6705
12.7681 4.84826 28.6595
12.8046 4.84657 28.6495
12.8413 4.84495 28.64
12.8785 4.84357 28.6317
12.9163 4.84239 28.6248
12.9549 4.84152 28.6196
12.9941 4.84085 28.6157
13.7833 4.71884 27.8945
13.8255 4.71961 27.899
13.8664 4.71995 27.901
13.9067 4.72009 27.9018
13.9459 4.71987 27.9006
13.9852 4.71967 27.8994
14.0242 4.71938 27.8976
14.0632 4.71906 27.8958
14.1021 4.71872 27.8937
14.1409 4.71836 27.8916
14.1799 4.71809 27.89
14.2189 4.71778 27.8882
14.2582 4.71761 27.8872
14.2976 4.71744 27.8862
14.3368 4.71722 27.8849
14.3763 4.71708 27.8841
14.416 4.71703 27.8838
14.456 4.71707 27.884
14.496 4.71711 27.8842
14.5364 4.71728 27.8852
14.5769 4.71749 27.8865
14.6174 4.71768 27.8876
14.6579 4.71789 27.8889
14.6993 4.71839 27.8918
14.7412 4.71903 27.8956
14.7855 4.72045 27.904
12.6594 4.89477 28.6919
12.6962 4.89312 28.6823
12.7329 4.89148 28.6726
12.7694 4.88974 28.6624
12.806 4.88808 28.6527
12.8429 4.88653 28.6436
12.8804 4.8852 28.6358
12.9181 4.88398 28.6287
12.9567 4.88312 28.6236
12.9958 4.88242 28.6195
13.7852 4.75937 27.8982
13.8294 4.76086 27.907
13.8694 4.76088 27.9071
13.9087 4.76068 27.9059
13.9477 4.76038 27.9042
13.9864 4.75995 27.9016
14.0253 4.75962 27.8997
14.0639 4.75918 27.8971
14.1024 4.75872 27.8944
14.141 4.75829 27.8919
14.1798 4.75792 27.8898
14.2188 4.75762 27.888
14.2577 4.75732 27.8862
14.2967 4.75702 27.8845
14.336 4.75684 27.8834
14.3754 4.75666 27.8824
14.415 4.75657 27.8818
14.4548 4.75657 27.8818
14.4948 4.7566 27.882
14.535 4.75672 27.8827
14.5754 4.75689 27.8837
14.6161 4.75717 27.8853
14.6567 4.75738 27.8866
14.6992 4.75824 27.8916
14.7434 4.75963 27.8997
12.6961 4.93411 28.6821
12.7335 4.9327 28.6739
12.7705 4.93115 28.6649
12.8072 4.9295 28.6553
12.8441 4.92795 28.6463
12.8817 4.92666 28.6388
12.9195 4.92545 28.6318
12.9581 4.92457 28.6267
12.9973 4.9239 28.6227
13.037 4.92346 28.6202
13.792 4.80161 27.9119
13.8344 4.8025 27.9171
13.874 4.80238 27.9164
13.9123 4.80181 27.913
13.9505 4.80122 27.9096
13.9886 4.80063 27.9062
14.0267 4.79998 27.9024
14.065 4.79944 27.8993
14.1033 4.79891 27.8962
14.1417 4.79841 27.8933
14.1802 4.79793 27.8905
14.2188 4.79752 27.8881
14.2574 4.79707 27.8855
14.2962 4.7967 27.8834
14.3355 4.79654 27.8824
14.3748 4.79634 27.8813
14.4144 4.79624 27.8807
14.4542 4.79621 27.8805
14.494 4.79621 27.8805
14.5343 4.79634 27.8812
14.5746 4.79648 27.8821
14.6148 4.7966 27.8827
14.6551 4.79674 27.8836
14.6944 4.79655 27.8825
14.7316 4.7957 27.8775
12.7333 4.97364 28.6736
12.771 4.97235 28.6661
12.8081 4.97084 28.6575
12.8452 4.96934 28.6488
12.8829 4.96809 28.6416
12.9209 4.96692 28.6349
12.9594 4.96598 28.6294
12.9982 4.96519 28.6248
13.0372 4.96445 28.6206
13.8017 4.84493 27.9316
13.8407 4.8446 27.9297
13.8785 4.84386 27.9254
13.916 4.84303 27.9206
13.9535 4.84216 27.9156
13.9911 4.84139 27.9111
14.0289 4.84064 27.9068
14.0667 4.83991 27.9026
14.1049 4.83934 27.8993
14.1428 4.83867 27.8955
14.1808 4.83804 27.8918
14.2192 4.83752 27.8888
14.2577 4.83703 27.886
14.2963 4.83661 27.8836
14.3355 4.83638 27.8823
14.3746 4.83612 27.8808
14.414 4.83597 27.8799
14.4536 4.83589 27.8794
14.4933 4.83582 27.879
14.5333 4.83589 27.8794
14.5738 4.83608 27.8805
14.6138 4.83612 27.8808
14.6542 4.83633 27.8819
14.6947 4.83652 27.8831
14.7349 4.83664 27.8837
12.7703 5.01306 28.6646
12.8083 5.01189 28.6579
12.846 5.01062 28.6506
12.8836 5.00929 28.643
12.9217 5.00819 28.6367
12.9602 5.00726 28.6314
12.9989 5.0064 28.6265
13.0378 5.00558 28.6218
13.0767 5.00482 28.6174
13.1157 5.0041 28.6133
13.8112 4.88826 27.9509
13.8485 4.88731 27.9455
13.8843 4.88583 27.937
13.9206 4.88456 27.9298
13.9574 4.88347 27.9236
13.9945 4.88247 27.9179
14.0318 4.88157 27.9127
14.0691 4.88066 27.9075
14.1066 4.87982 27.9027
14.1442 4.87902 27.8981
14.1819 4.87829 27.8939
14.22 4.87767 27.8904
14.2583 4.87712 27.8872
14.2968 4.87665 27.8846
14.3357 4.87633 27.8827
14.3746 4.876 27.8808
14.4138 4.87578 27.8796
14.4533 4.87564 27.8788
14.4927 4.8755 27.878
14.5328 4.87558 27.8784
14.5729 4.87565 27.8788
14.6129 4.8757 27.8791
14.6532 4.87583 27.8799
14.6921 4.87551 27.878
14.7314 4.87533 27.877
12.808 5.05276 28.6572
12.8458 5.05148 28.65
12.8838 5.05032 28.6434
12.9222 5.04933 28.6378
12.9606 5.04834 28.6322
12.9992 5.04744 28.6271
13.0381 5.04663 28.6225
13.0767 5.04576 28.6175
13.1155 5.04494 28.6129
13.8229 4.93238 27.9745
13.8571 4.9303 27.9627
13.8912 4.92823 27.9509
13.9264 4.92653 27.9413
13.9621 4.92506 27.933
13.9983 4.92372 27.9254
14.0348 4.92253 27.9186
14.0718 4.92149 27.9128
14.1086 4.92043 27.9067
14.146 4.91956 27.9018
14.1833 4.91866 27.8967
14.2211 4.91792 27.8925
14.2591 4.91728 27.8888
14.2973 4.91671 27.8856
14.336 4.91631 27.8833
14.3748 4.91594 27.8813
14.4139 4.91567 27.8797
14.4532 4.91548 27.8787
14.4926 4.91533 27.8778
14.5326 4.91538 27.8781
14.5725 4.91537 27.8781
14.6125 4.91544 27.8784
14.6522 4.91537 27.878
14.6869 4.91364 27.8682
14.73 4.91474 27.8744
12.8836 5.09122 28.6431
12.9225 5.0904 28.6385
12.9608 5.08934 28.6325
12.9993 5.0884 28.6272
13.0379 5.08747 28.622
13.0762 5.08646 28.6163
13.1146 5.08551 28.611
13.1531 5.08455 28.6056
13.8056 4.98056 28.0205
13.8348 4.97665 27.9985
13.8663 4.9736 27.9813
13.8989 4.97097 27.9666
13.9328 4.96878 27.9543
13.9673 4.96684 27.9433
14.0027 4.9652 27.9341
14.0384 4.96372 27.9258
14.0748 4.96247 27.9188
14.1112 4.96125 27.9119
14.1481 4.96018 27.9058
14.1851 4.95917 27.9002
14.2225 4.95831 27.8953
14.2601 4.95749 27.8907
14.2982 4.95687 27.8873
14.3365 4.95636 27.8843
14.3751 4.95592 27.8819
14.414 4.95558 27.88
14.4533 4.95539 27.8789
14.4926 4.95519 27.8778
14.5325 4.95519 27.8778
14.5723 4.95519 27.8778
14.6124 4.95526 27.8782
14.651 4.95484 27.8758
14.6846 4.95273 27.8639
12.9214 5.13092 28.6361
12.9602 5.13006 28.6313
12.9988 5.12914 28.6262
13.0373 5.12818 28.6208
13.0755 5.12712 28.6149
13.1137 5.12606 28.609
13.1518 5.12497 28.6029
13.1891 5.12356 28.595
13.823 5.02695 28.0558
13.8486 5.0217 28.0265
13.877 5.01749 28.003
13.9076 5.01409 27.9841
13.9399 5.0113 27.9685
13.9731 5.00886 27.9549
14.0076 5.00691 27.944
14.0426 5.00516 27.9342
14.0779 5.00351 27.925
14.1139 5.00209 27.9171
14.1503 5.00087 27.9103
14.187 4.99975 27.904
14.2241 4.99875 27.8984
14.2613 4.99781 27.8932
14.2993 4.99715 27.8895
14.3374 4.99651 27.8859
14.3758 4.996 27.8831
14.4145 4.9956 27.8809
14.4536 4.99534 27.8794
14.493 4.99519 27.8786
14.5327 4.99512 27.8782
14.5726 4.99516 27.8784
14.6118 4.99492 27.8771
14.6509 4.99466 27.8756
14.6935 4.99558 27.8808
12.998 5.16973 28.6243
13.0364 5.16873 28.6187
13.0746 5.16769 28.6129
13.1127 5.16654 28.6066
13.1505 5.16534 28.6
13.1875 5.1638 28.5914
13.2243 5.16224 28.5828
13.261 5.16059 28.5737
13.8385 5.07275 28.0873
13.8606 5.06617 28.0509
13.8873 5.06126 28.0237
13.9163 5.05723 28.0014
13.9474 5.05401 27.9835
13.9795 5.05114 27.9676
14.0128 5.04873 27.9543
14.047 5.04668 27.943
14.0816 5.04474 27.9322
14.1169 5.0431 27.9231
14.1529 5.04169 27.9153
14.1893 5.04044 27.9084
14.2261 5.03933 27.9022
14.263 5.03827 27.8964
14.3006 5.03749 27.892
14.3384 5.03676 27.888
14.3766 5.03617 27.8847
14.4151 5.03568 27.882
14.454 5.03536 27.8803
14.4932 5.03513 27.879
14.5335 5.03526 27.8797
14.5732 5.03519 27.8793
14.6108 5.03441 27.875
14.653 5.03522 27.8795
13.0351 5.20914 28.6159
13.0738 5.20826 28.6111
13.1119 5.20715 28.605
13.1499 5.20598 28.5986
13.1864 5.20427 28.5891
13.2226 5.20244 28.5791
13.2586 5.20052 28.5685
13.2948 5.19869 28.5585
13.3304 5.19664 28.5473
13.8346 5.12636 28.1612
13.8531 5.11833 28.1171
13.8744 5.11135 28.0787
13.8988 5.10558 28.047
13.9262 5.10091 28.0213
13.9558 5.09708 28.0003
13.9865 5.0937 27.9817
14.0186 5.09084 27.966
14.0519 5.0884 27.9526
14.0855 5.08612 27.9401
14.1204 5.08428 27.93
14.1558 5.08266 27.9211
14.1918 5.08126 27.9134
14.2281 5.07996 27.9063
14.2651 5.07891 27.9005
14.3021 5.07789 27.8949
14.3396 5.07704 27.8902
14.3776 5.07639 27.8867
14.4159 5.07582 27.8836
14.4546 5.07542 27.8813
14.4937 5.07514 27.8798
14.5343 5.07543 27.8814
14.5739 5.07533 27.8809
14.6081 5.07335 27.8699
13.11 5.24729 28.6008
13.1476 5.24597 28.5936
13.1847 5.24447 28.5854
13.2213 5.24278 28.5763
13.2576 5.24095 28.5663
13.293 5.23885 28.5548
13.3282 5.23661 28.5426
13.3638 5.23457 28.5315
13.3994 5.23255 28.5205
13.5788 5.22311 28.469
13.6802 5.21522 28.426
13.7124 5.21201 28.4086
13.7695 5.20288 28.3588
13.7925 5.19628 28.3228
13.8123 5.18849 28.2803
13.8306 5.18019 28.2351
13.8485 5.17182 28.1895
13.8674 5.16383 28.1459
13.8876 5.15641 28.1055
13.9117 5.15044 28.073
13.9369 5.14493 28.0429
13.9645 5.14033 28.0179
13.9939 5.13642 27.9965
14.0245 5.13298 27.9778
14.0568 5.13016 27.9624
14.0899 5.12765 27.9487
14.1243 5.12562 27.9376
14.1592 5.12382 27.9279
14.1948 5.12224 27.9192
14.2307 5.12078 27.9113
14.2672 5.11957 27.9047
14.3038 5.11839 27.8983
14.341 5.11744 27.8931
14.3789 5.11671 27.8891
14.4168 5.11601 27.8853
14.4558 5.11572 27.8837
14.4939 5.11507 27.8802
14.5391 5.11698 27.8905
14.5774 5.11641 27.8875
13.1444 5.28556 28.5866
13.1817 5.28415 28.579
13.2188 5.28263 28.5708
13.2553 5.28089 28.5614
13.2912 5.27894 28.5508
13.3263 5.27666 28.5385
13.3615 5.27445 28.5266
13.3971 5.27242 28.5155
13.4331 5.27054 28.5054
13.4692 5.26872 28.4955
13.5052 5.26686 28.4855
13.5414 5.26513 28.4761
13.578 5.26353 28.4675
13.6142 5.26178 28.458
13.6503 5.26001 28.4484
13.6857 5.25796 28.4374
13.7188 5.25508 28.4218
13.7486 5.25095 28.3995
13.7769 5.24624 28.374
13.8014 5.24014 28.341
13.8228 5.23291 28.3019
13.8423 5.22499 28.259
13.8616 5.21704 28.216
13.8805 5.20902 28.1727
13.8998 5.20115 28.1301
13.9229 5.19478 28.0957
13.9472 5.18888 28.0637
13.9733 5.18367 28.0356
14.0018 5.17937 28.0123
14.0312 5.17545 27.9911
14.0625 5.17222 27.9737
14.0949 5.16944 27.9586
14.1285 5.16712 27.9461
14.1629 5.16509 27.9351
14.198 5.16334 27.9256
14.2336 5.16174 27.917
14.2698 5.1604 27.9097
14.3061 5.15913 27.9028
14.3432 5.1581 27.8973
14.3809 5.15733 27.8931
14.4185 5.15652 27.8887
14.4581 5.15642 27.8882
14.4985 5.15658 27.8891
14.5408 5.15746 27.8938
13.2144 5.32172 28.5613
13.2511 5.32005 28.5524
13.288 5.3185 28.544
13.324 5.31655 28.5336
13.3598 5.31457 28.523
13.3956 5.31258 28.5123
13.4315 5.31067 28.502
13.4676 5.30885 28.4923
13.5037 5.30703 28.4825
13.5405 5.30549 28.4742
13.5773 5.30395 28.4659
13.6135 5.30219 28.4565
13.6497 5.30044 28.4471
13.6851 5.29839 28.4361
13.7193 5.29591 28.4228
13.7511 5.29252 28.4046
13.781 5.28842 28.3826
13.8073 5.28295 28.3532
13.8309 5.27646 28.3184
13.8523 5.26921 28.2795
13.8734 5.26189 28.2402
13.8933 5.25413 28.1986
13.9128 5.24629 28.1565
13.9349 5.23943 28.1197
13.9583 5.23315 28.086
13.9832 5.22743 28.0553
14.01 5.2225 28.0288
14.0384 5.21813 28.0054
14.0684 5.21442 27.9855
14.1004 5.21144 27.9695
14.1332 5.20881 27.9553
14.1669 5.20649 27.9429
14.2015 5.20454 27.9324
14.237 5.20292 27.9237
14.273 5.20148 27.916
14.3091 5.2001 27.9086
14.3461 5.19905 27.903
14.3848 5.19863 27.9007
14.4231 5.19804 27.8975
14.4676 5.19971 27.9065
14.5161 5.20279 27.923
13.2463 5.35893 28.542
13.2833 5.35742 28.534
13.3205 5.35596 28.5262
13.3574 5.35441 28.5179
13.3938 5.35265 28.5086
13.4301 5.35085 28.499
13.4664 5.34912 28.4897
13.5029 5.34742 28.4807
13.5398 5.34591 28.4727
13.5766 5.34436 28.4644
13.6133 5.34279 28.456
13.6498 5.34116 28.4474
13.6856 5.33926 28.4372
13.7204 5.33697 28.425
13.7532 5.33395 28.409
13.7843 5.33026 28.3893
13.8125 5.32547 28.3638
13.8382 5.31978 28.3335
13.8617 5.31325 28.2987
13.883 5.30594 28.2598
13.9046 5.29875 28.2215
13.9252 5.29125 28.1815
13.9467 5.28414 28.1437
13.9693 5.27746 28.1081
13.9932 5.27131 28.0753
14.0188 5.26587 28.0464
14.046 5.26102 28.0205
14.0748 5.25684 27.9982
14.106 5.25355 27.9807
14.138 5.25055 27.9648
14.171 5.24797 27.951
14.2057 5.24602 27.9406
14.2412 5.24439 27.9319
14.2769 5.24284 27.9237
14.3153 5.24226 27.9206
14.3526 5.24131 27.9155
14.3877 5.23956 27.9062
14.4354 5.24238 27.9212
13.2435 5.39862 28.5361
13.2791 5.39649 28.5248
13.316 5.3949 28.5164
13.3534 5.39358 28.5094
13.3908 5.39221 28.5022
13.4279 5.39074 28.4944
13.465 5.38926 28.4866
13.5021 5.38783 28.479
13.5394 5.38646 28.4718
13.5763 5.38497 28.4639
13.6133 5.38347 28.456
13.65 5.3819 28.4477
13.686 5.38008 28.4381
13.7212 5.37796 28.4269
13.755 5.37528 28.4127
13.7869 5.37186 28.3946
13.817 5.36777 28.373
13.8451 5.36294 28.3475
13.8711 5.35733 28.3178
13.8941 5.3506 28.2823
13.9148 5.34302 28.2422
13.9367 5.33597 28.2049
13.958 5.32868 28.1664
13.9808 5.32204 28.1313
14.0039 5.31552 28.0968
14.0287 5.30972 28.0662
14.0549 5.30445 28.0383
14.0825 5.29977 28.0136
14.1128 5.29608 27.9941
14.1441 5.29283 27.9769
14.1764 5.28995 27.9617
14.2125 5.28852 27.9541
14.2502 5.28766 27.9496
14.2882 5.28694 27.9457
14.3298 5.28755 27.949
14.3752 5.28954 27.9595
14.4172 5.29031 27.9636
13.3499 5.43289 28.5018
13.3873 5.43156 28.4948
13.425 5.43031 28.4883
13.4627 5.4291 28.4819
13.5007 5.42798 28.476
13.5384 5.42679 28.4698
13.576 5.42554 28.4633
13.6131 5.4241 28.4557
13.65 5.4226 28.4478
13.6863 5.42086 28.4387
13.7219 5.41885 28.4282
13.7562 5.41635 28.415
13.7891 5.41332 28.3991
13.8204 5.40969 28.3801
13.8503 5.40552 28.3582
13.8781 5.40057 28.3322
13.9034 5.39466 28.3012
13.9271 5.38818 28.2672
13.9487 5.3809 28.2291
13.9698 5.37349 28.1902
13.9922 5.36665 28.1543
14.0152 5.36001 28.1195
14.0401 5.35419 28.0889
14.0676 5.3494 28.0638
14.0941 5.3442 28.0365
14.1227 5.33988 28.0138
14.1527 5.33607 27.9939
14.1878 5.33422 27.9841
14.2248 5.3331 27.9783
14.2636 5.33263 27.9758
14.3045 5.33298 27.9777
13.613 5.46476 28.4555
13.6503 5.46339 28.4484
13.6869 5.46176 28.4399
13.7226 5.4598 28.4297
13.7575 5.45752 28.4179
13.7914 5.45485 28.404
13.8238 5.45162 28.3871
13.8554 5.44805 28.3685
13.8847 5.44365 28.3456
13.9119 5.43845 28.3186
13.9366 5.43229 28.2865
13.9595 5.42548 28.251
13.9814 5.4183 28.2136
14.004 5.41145 28.1779
14.0279 5.40514 28.1451
14.0542 5.39976 28.1171
14.0826 5.39525 28.0936
14.1107 5.39062 28.0695
14.1398 5.38642 28.0476
14.1709 5.38302 28.0299
14.2111 5.38307 28.0302
14.251 5.38298 28.0297
13.8281 5.49392 28.396
13.8596 5.4903 28.3773
13.8898 5.4862 28.3561
13.9186 5.48157 28.3321
13.945 5.47604 28.3036
13.9691 5.46961 28.2703
13.9928 5.46311 28.2367
14.0181 5.45723 28.2063
14.0446 5.45184 28.1785
14.073 5.44725 28.1547
14.1056 5.44431 28.1396
